ply
format ascii 1.0
element vertex 709
property float x
property float y
property float z
property uchar red
property uchar green
property uchar blue
end_header
8.288578411298 -0.28254849144620325 15.123166941794393 111 141 175
8.289660814146103 -0.2826746729599392 15.130615088316258 111 141 175
8.467276205447142 -0.2789856979671872 15.091901316645137 100 130 168
8.467356027918054 -0.2785476280308039 15.089556230020138 100 130 168
4.816530394572106 -0.047268828179392514 15.804695978892637 99 88 84
7.223054015312518 1.7511208014190305 13.715255728822443 115 107 104
2.4376976212791237 2.435533703266364 15.034368892181108 167 159 156
2.1082520769354427 -6.332328034822485 15.742491760097332 165 173 184
8.509382026907552 -5.774652509632435 14.520297090497975 71 78 104
8.858192119477033 -5.426395683262019 14.493073700468432 173 191 216
2.1920489976108537 -5.344775462604428 15.81088914672828 150 158 137
2.1296810651922726 -5.291619687305869 15.845811384492103 147 162 147
1.6513050459554923 -5.2028185313028565 15.927510860364395 165 194 224
7.425024047826705 -4.879894076702947 14.831022087866334 190 226 253
7.379482593798671 -4.805908737246825 14.859848560224652 161 207 253
1.25192432838856 -5.071504335455992 16.026828539666592 87 112 144
2.09031717979137 -5.018348883118898 15.869501082953233 108 137 169
2.238187757784026 -4.896654277636309 15.845681556752195 111 141 169
1.2746154089663373 -4.93599080700169 16.054665433987452 144 173 205
1.8111551609708127 -4.899355562914322 15.933906073739644 114 146 187
1.8115912451028084 -4.9027136145752435 15.941211813688986 114 146 187
2.07437677381073 -4.853289146331222 15.880079980214278 168 198 228
2.078763196597532 -4.853437963279568 15.88146171931008 168 198 228
2.413578677932083 -4.844878798407346 15.811087940977691 165 194 226
2.4185556920477147 -4.850099582583073 15.82809362440627 165 194 226
5.11443984507825 -4.727358533903234 15.306379578723282 114 143 177
5.11443984507825 -4.727358533903234 15.306379578723282 114 143 177
3.5671626639915686 -4.7620748688306795 15.572678298237408 107 136 168
7.334862583401736 -4.4950268486853515 14.878554409171079 49 66 103
1.9543579330906136 -4.429392430797293 15.945058973101686 172 197 227
1.2740114464200596 -4.321470380960042 16.080528846003517 97 125 164
1.2745569988177525 -4.322312121624651 16.08645660001891 97 125 164
1.9060905749657868 -4.263911765622971 15.955682458961382 167 197 225
1.7116834860415855 -4.260971562467458 16.009716593546873 168 198 221
1.2787872382340573 -4.103453826964091 16.1115439552131 125 150 180
1.3732907743736038 -4.109619531738586 16.140228443218902 129 154 184
1.581174655320715 -4.088111807494498 16.054077416660988 129 154 184
1.7058917376563334 -3.5927910824434135 16.07657871138725 171 201 229
1.4775107992398404 -3.481883668215227 16.124366919146627 177 202 232
1.3801712709461529 -3.4776289645861405 16.150888597576433 174 199 229
1.6960354697092603 -3.1400703945107895 16.111734978760115 175 205 232
1.4794160252653283 -3.0908923879152495 16.185525872032642 136 162 185
1.4794160252653283 -3.0908923879152495 16.185525872032642 136 162 185
1.6965755875316275 -2.3542151246207754 16.231525873246355 143 174 220
1.3083340766879221 -2.012111157726943 16.310768241708676 118 150 191
6.522699085006237 -1.8891188343105498 15.32153325257832 73 123 176
1.3800294293746014 -1.8795301219282092 16.322457496080116 123 147 186
4.66164223367212 -1.7924972395589798 15.707593387124406 77 117 108
5.272924156239029 -1.87494085484785 16.260847933459875 70 112 108
5.698271765174539 -1.77280243513726 15.495000447500471 79 115 112
4.809242715769032 -1.6467953128177997 15.68864053290021 60 49 63
3.9978329987443932 -1.6396382444038036 15.838076547938924 87 92 118
5.775210102616746 -1.5888547948228724 15.518066551456 79 85 100
8.615569425999249 -1.4466785995235112 14.940952812815695 167 201 239
8.615569425999249 -1.4466785995235112 14.940952812815695 167 201 239
2.9991470516694734 -1.486270526596885 15.96282983199436 48 60 82
8.075137310483498 -1.4135077491870383 15.063024219736842 81 117 160
9.025329478768114 -1.3643571222114503 14.864452145581994 164 189 219
7.944541299714448 -1.3716978567374087 15.090939318112039 32 39 65
8.96242979861036 -1.3506448826055495 14.878518199136673 20 34 48
8.15552282644773 -1.3525165685721636 15.043459605086277 170 205 239
8.617391257501136 -1.3327235116277296 14.960520654556472 155 193 238
9.726282445414823 -1.2997162328988439 14.728205501345105 201 225 244
9.726745829653437 -1.298278106828879 14.726366856374707 201 225 244
3.9914104321389146 -1.1424398863553908 15.906153995197 187 215 250
0.8107772912189146 -1.16891374163687 16.48317939654883 58 73 92
3.800702691261586 -1.1349306900944987 15.934695815631327 179 189 215
0.46505372206435847 -1.1708755137864082 16.551602972542497 57 71 97
3.4743774933535816 -1.09024471039782 16.00159628646928 53 70 79
3.4739852407698453 -1.0919211432750489 16.000480835650645 53 70 79
4.813491741499682 -1.067301751416915 15.755269101529231 33 52 76
4.813491741499682 -1.067301751416915 15.755269101529231 33 52 76
1.2235443301965057 -0.5779879215481452 16.462635908395598 98 116 152
3.7911590206005386 -0.5335208866625645 16.007332361117356 37 53 75
4.394446435309579 -0.49951203908046904 15.9001883030161 55 47 64
7.705278322993424 -0.3572962338823382 15.245054178735124 178 208 242
7.46376877532432 0.777076896138275 14.737745218746804 180 154 127
4.8091277263638545 4.112676895154984 10.935325976047128 69 62 54
6.839355729891788 -6.210125580656003 14.820666063048812 113 139 173
7.771658911498811 -6.118110369181021 14.65231569222435 58 58 54
7.533461851222628 -5.9257150798796 14.711010096226559 76 60 62
7.208204753172638 -5.497654622185456 14.81492790452961 167 192 216
7.208204753172638 -5.497654622185456 14.81492790452961 167 192 216
2.531647854470219 -5.331060113254999 15.740724323780869 170 188 207
1.3426387119877965 -5.372759778546253 15.989437694801962 161 180 204
1.4270872090314843 -5.367224530508592 15.966940704091352 162 182 207
8.07465736283125 -5.055257391474821 14.67990958821514 37 80 149
2.226858070676796 -4.95532477476668 15.83657302234126 168 198 226
2.581415581424841 -4.954776258791925 15.805971925990027 169 199 227
2.583026371449273 -4.9521003943493636 15.79660502500471 169 199 227
7.3716203629282955 -4.73370469663898 14.850998964861773 67 101 149
1.7569974581111438 -4.9881969667905235 15.966781871325173 146 178 219
2.1462383319121225 -4.868124213336436 15.873056826784863 164 193 225
2.2915684871448114 -4.862780953593893 15.849816805995422 161 191 219
2.516505886245556 -4.856220772932524 15.80925302867499 164 194 222
2.718531709552652 -4.833336062793094 15.747573409908705 170 200 228
7.547849582614555 -4.57389456735046 14.838406178381213 60 74 99
7.477213428262879 -4.5177552379235255 14.865004121038757 117 122 141
7.403122842292841 -4.498950546953668 14.875237325376998 98 108 129
7.651979813336176 -4.479055504677992 14.813011267106123 56 67 84
1.7113349939283635 -4.370713822092224 15.998615756209185 168 199 220
1.327042098598143 -4.162138802092036 16.11146204226729 165 195 223
1.7111349996467082 -4.146421330836753 16.019934377960745 170 200 224
1.7107788974053808 -4.037171085328405 16.03557205216732 166 197 222
1.328109330813025 -4.0397314704655924 16.09896809056326 167 192 222
1.3314701179693886 -4.043885688428895 16.113851474682455 167 192 222
1.3875924025023194 -3.813677857100766 16.114635493011527 171 197 220
1.3918435464920695 -3.7013768342802997 16.127788440012367 172 197 227
1.701967985253146 -3.2519159544675094 16.10722022971163 173 203 229
1.3256967856936468 -3.148481680148015 16.20834730556233 178 199 220
1.698041734536469 -3.034247223906216 16.131740393146426 174 204 231
1.3108348356961894 -3.0351351121559387 16.212690440098847 171 197 220
1.3878682253005814 -2.9239904201756306 16.217441977073435 167 197 225
1.4905253566057495 -2.903823698679326 16.097281076464427 169 199 227
1.696894359546402 -2.917679202112961 16.133207251899975 171 200 232
1.6950569914984417 -2.8111740819158704 16.15391984370482 161 192 225
1.3816815488648966 -2.804914385340423 16.17565200497989 154 187 222
1.230325390095815 -2.6143359753988338 16.259856397910227 108 140 181
1.2606112629510764 -1.9446978402412944 16.32903697000072 69 101 142
5.679993259276371 -2.036691100652462 17.458289167130566 60 115 93
6.146123135121199 -1.7224504224614123 15.419882756165677 115 68 85
3.6067349713561874 -1.7183573866986053 15.90583514986386 173 96 114
7.903603567016244 -1.478277775101931 15.1078895329464 51 106 171
1.4476060705504012 -1.140973603306099 16.367791477215246 121 145 173
3.939245698560363 -1.1000550370282332 15.91640520914501 37 51 70
6.548696738956238 -0.8459641644696095 15.42440681976417 81 123 161
6.548696738956238 -0.8459641644696095 15.42440681976417 81 123 161
0.9785624552297235 -0.5824463535027686 16.523229438454038 97 116 148
6.589473231481108 -0.536876336134625 15.45606190326694 196 217 244
6.923931208401465 -0.5291377645966685 15.394715876201007 187 208 241
7.327222331486336 -0.5256527339105792 15.297563420648457 173 203 243
3.3819170448029916 -0.532818563080273 16.083369136604237 101 129 168
7.7321900501801295 -0.48472659980245647 15.229996196936176 167 203 245
3.318120049882553 -0.5141653339632594 16.092052567431583 42 49 63
7.819054463067582 -0.4646754940203103 15.206737870820357 22 30 46
7.8188723075689985 -0.4643346166904979 15.205782362632792 22 30 46
7.395452760418572 -0.4614884508466063 15.29872332668388 21 42 71
7.882024957673096 -0.45028265018197 15.19166641497658 97 127 165
5.413165843024645 -0.46283260690676964 15.70752930991811 132 157 208
5.413165843024645 -0.46283260690676964 15.70752930991811 132 157 208
5.645569687938096 -0.45340064268562885 15.662659864815987 114 141 171
5.645569687938096 -0.45340064268562885 15.662659864815987 114 141 171
8.11275835830438 -0.4370230318620463 15.148308620373477 167 198 239
8.11275835830438 -0.4370230318620463 15.148308620373477 167 198 239
7.182720871527357 -0.41623643141011246 15.347988872287079 186 214 250
8.385197452048885 -0.36811977656999517 15.092306157737116 18 30 28
8.80844892542471 -0.3520486565301351 15.032829382289957 20 22 34
7.81102699760238 -0.32969586720584565 15.222985749739193 16 29 55
7.875709086950661 -0.3106987979445015 15.208569148405099 52 65 107
7.875552865207351 -0.3102688188873333 15.207820904076918 52 65 107
4.80881812175506 0.02772086219717161 15.826642325473722 94 81 75
7.257938303274392 0.6622501894268223 14.915776762429214 58 42 26
5.072478312544096 4.133823536789303 10.887030271314819 115 103 87
7.619228774151712 -5.918121783588653 14.692682799404437 148 95 75
7.7595314371463555 -4.878974157380823 14.763228573179669 178 211 249
1.390225375117105 -5.092353767628856 15.992143298764995 119 138 170
8.03518182220095 -4.794959303924289 14.721476533466749 54 66 95
2.1444284315875115 -4.954990077778664 15.866616742332026 164 193 225
7.427114827925817 -4.593952989323864 14.870728985443698 66 83 111
7.571681229161354 -4.484076888383914 14.83381407348538 95 99 118
4.770885614598219 -4.41383726372944 15.409735200686539 73 106 142
4.770885614598219 -4.41383726372944 15.409735200686539 73 106 142
1.7734272532478936 -4.431321412728085 15.98583584180013 118 146 186
1.7734272532478936 -4.431321412728085 15.98583584180013 118 146 186
1.3263540812045973 -3.8180583231101313 16.12040901075431 169 195 218
2.1538538853868427 -1.8683234642313282 16.16144490229507 117 154 198
1.2612645704575978 -1.5273646763503343 16.37426367271511 64 71 89
7.860652715139508 -1.4171778720681796 15.097577421301619 109 164 228
7.731992864189473 -1.4067060002960403 15.125315233173623 72 110 155
2.4696168719228213 -1.126925268207462 16.175528676922134 142 157 189
4.746801099058068 -1.0592347643555335 15.772358784772715 147 182 218
4.746801099058068 -1.0592347643555335 15.772358784772715 147 182 218
5.371134416954531 -1.0485006504005372 15.654762857224577 174 214 253
5.371134416954531 -1.0485006504005372 15.654762857224577 174 214 253
5.651761739703808 -1.0406658989019335 15.605194548637138 84 128 172
5.651761739703808 -1.0406658989019335 15.605194548637138 84 128 172
7.120513033267662 -0.8301907343684445 15.317885402891433 151 182 223
7.75428845434926 -0.8189756839512848 15.193830876255912 102 137 175
7.613823948797141 -0.8089095924397023 15.20966475028026 158 192 239
7.613823948797141 -0.8089095924397023 15.20966475028026 158 192 239
0.7959494775219828 -0.5956845842690003 16.541643789538487 91 110 142
0.9037674728098941 -0.5892575916179281 16.523175884286196 119 138 170
1.1537474273461272 -0.5865442599785119 16.49390268335341 110 128 164
6.7652758317955435 -0.525034844372557 15.432542287812034 202 222 254
7.075321390555832 -0.5145578650067056 15.37237309133978 184 217 252
7.2474059780021856 -0.5153274219515539 15.32125633945494 189 222 255
4.589175490072849 -0.48167169598593906 15.859272676564972 124 148 194
7.994701940725364 -0.4501726570367327 15.164533647715068 145 177 226
7.994702479172512 -0.4497923766389319 15.164538084845839 145 177 226
7.547948859569022 -0.45013694768013846 15.259456655406959 48 65 91
8.25769246943102 -0.43861179058869304 15.112605340100815 124 154 190
8.25769246943102 -0.43861179058869304 15.112605340100815 124 154 190
8.341314542407119 -0.4391028370692903 15.105280155708442 121 155 198
8.506278159707122 -0.4324308031790659 15.065959964209835 137 168 214
8.79497347125437 -0.42339505876756944 15.011731873610632 145 171 200
8.915610088764137 -0.419974790464938 14.981736152841044 152 186 223
9.044861459582817 -0.4256810432108863 14.952533584221651 99 128 166
8.580173294516454 -0.42223452843319764 15.054437006528879 46 79 119
9.19513777030497 -0.40821028959511085 14.945718689694601 160 182 227
9.19513777030497 -0.40821028959511085 14.945718689694601 160 182 227
9.293380058588319 -0.40860966042516644 14.91020587284692 185 208 249
9.293380058588319 -0.40860966042516644 14.91020587284692 185 208 249
7.678995253417116 -0.41325892353496796 15.246877562204126 49 69 94
8.860581057820959 -0.3560372748360286 14.994206109956712 23 25 43
8.863799539978352 -0.3560714381474307 15.00801698510266 23 25 43
8.313217376123712 -0.35517358879621497 15.118476578122234 22 29 39
8.544260227542122 -0.35253697254265753 15.07994555538069 28 31 38
8.461769516637371 -0.35131603608657885 15.080869452359078 25 28 35
6.580820300795345 -0.3453087406956975 15.477483388358054 163 192 224
6.66486444504758 -0.3433447635411414 15.455333938656487 174 203 234
4.6060309773298 0.09277065223200076 15.864182973617718 95 82 76
4.740058055487239 0.10532431704504398 15.845218049770514 90 82 80
7.199156889541053 0.7641390167106631 14.79742358665628 144 123 94
1.2642759081284827 1.8582960214508653 14.365024694371604 106 103 98
5.0277998536126844 4.099077705508947 10.917254855574624 206 195 180
4.867291415870436 4.7362568558807006 9.932935469989983 219 212 204
4.02393596270486 -7.409171349311683 15.275936212284861 255 248 208
9.457527144767438 -6.416792030016558 14.283418034338952 64 55 60
7.265747512210827 -5.879633045016707 14.768015749664213 150 149 154
3.1786113641259526 -5.5704118086727625 15.615955056115064 94 101 117
1.188696449775383 -5.240933762351892 16.048895079229666 93 112 141
1.4516335553915927 -5.1912747082350315 15.982960177258901 100 125 155
1.570762406683648 -5.008119976795757 15.974072735956499 147 180 215
1.9587401006494867 -4.338455139503475 15.955524671179175 133 158 188
1.7676882651895025 -3.7616124693855846 16.049145087491148 123 151 191
1.6694293989737525 -2.669247319514875 16.164029797800392 148 181 216
1.7528443563060325 -2.305600654267024 16.19361751029331 107 138 184
1.665580901596696 -1.9378807718765643 16.248955619921357 101 132 178
8.157862215725398 -1.527624918784542 15.016014104816879 28 36 49
8.157862215725398 -1.527624918784542 15.016014104816879 28 36 49
0.6305413724498657 -1.1752015714729698 16.532980506607096 125 140 159
0.6305413724498657 -1.1752015714729698 16.532980506607096 125 140 159
1.3003575739665647 -1.1551555988806186 16.3968709989517 124 153 183
1.984143692471162 -1.1422793214747062 16.273297763698835 141 164 201
1.9831895934797434 -1.1429418509594345 16.271762726023407 141 164 201
2.892055114439641 -1.1073268372721605 16.114508416852917 139 165 202
2.892055114439641 -1.1073268372721605 16.114508416852917 139 165 202
3.1449523819169407 -1.1070500122068916 16.06494836896676 162 189 219
3.1449523819169407 -1.1070500122068916 16.06494836896676 162 189 219
3.3914122348024627 -1.0955407372481045 16.021002828312877 178 200 242
3.6671245605189573 -1.0876657927532465 15.956924727263432 155 180 216
3.669126918861445 -1.0878551348237817 15.957523219377949 155 180 216
4.15152457518705 -1.0710704903098298 15.875731642580648 156 190 226
4.15152457518705 -1.0710704903098298 15.875731642580648 156 190 226
4.491235945082867 -1.0665505038807566 15.818256841138046 187 220 251
4.491235945082867 -1.0665505038807566 15.818256841138046 187 220 251
4.634273565325429 -1.0707272911298644 15.780228722928376 180 214 248
4.634273565325429 -1.0707272911298644 15.780228722928376 180 214 248
5.0755745913412476 -1.056100256757576 15.71492713687684 185 217 255
5.0755745913412476 -1.056100256757576 15.71492713687684 185 217 255
5.252323123451414 -1.047898279880985 15.678978367545463 57 80 116
5.252323123451414 -1.047898279880985 15.678978367545463 57 80 116
5.892938331030423 -1.0334993238432486 15.564560166912942 88 126 165
5.892938331030423 -1.0334993238432486 15.564560166912942 88 126 165
8.721452598752723 -0.7876164651390496 14.97136197516075 166 200 243
8.720483112987834 -0.7868083782774863 14.967218627784414 166 200 243
8.824957169910107 -0.775660254570117 14.971806960798776 148 184 230
8.824957169910107 -0.775660254570117 14.971806960798776 148 184 230
3.4173602403097423 -0.5292216877116446 16.077724956603852 42 70 109
3.4173602403097423 -0.5292216877116446 16.077724956603852 42 70 109
6.469063995643937 -0.5064583134324311 15.481859734047427 193 217 245
4.476672094763531 -0.49960530109083634 15.87691685765875 100 123 164
4.476490759342395 -0.49982288513726514 15.876471045480015 100 123 164
5.279106688864129 -0.4755197885112499 15.730150735601002 41 66 106
5.279106688864129 -0.4755197885112499 15.730150735601002 41 66 106
5.531339637980332 -0.4652372816744612 15.671602623471928 125 152 201
5.531339637980332 -0.4652372816744612 15.671602623471928 125 152 201
8.690319227384581 -0.43026495738871384 15.040289416680334 85 119 155
7.291262887110839 -0.41282916036280215 15.32141216628271 43 60 72
7.8194916910587144 -0.3796848225645487 15.21981234972649 20 29 46
6.865525754510223 -0.345931999033097 15.41487587287771 171 200 232
7.023951248237538 -0.35333930576277434 15.385296126454483 176 205 237
7.72785379712882 -0.33474784348639236 15.24623668676172 87 133 181
4.721467280889053 -0.12272968375002574 15.80866561431066 94 81 72
7.038439110370707 0.7456359191170119 14.85521623962703 182 153 121
7.480993368164195 0.7678337762050585 14.733146381598907 155 127 100
7.749039348899609 0.7625286662253148 14.698846030513407 176 147 113
5.146103621485821 4.1101625316905555 10.881335473948173 202 190 178
4.88791826993689 4.135491018820554 10.91776902385109 64 57 49
7.308489759085999 -6.198071371007012 14.727814745476106 64 78 105
8.084309185026356 -5.164981537057565 14.67948075223312 179 210 242
8.084309185026356 -5.164981537057565 14.67948075223312 179 210 242
2.0239229258296647 -5.308397065709363 15.844222221129405 170 191 218
1.1853015844138775 -5.345319906455203 16.024998928938196 164 186 209
1.283934594205902 -5.216587679871021 15.99889289053075 94 113 145
1.1636509241916517 -5.110901441644439 16.041434135803097 148 177 209
2.6849918242351114 -4.96602356224948 15.757738481999047 170 200 228
1.872281823901106 -4.5495473722204665 15.958442474680746 174 199 229
1.1490552330223827 -2.0825164831091776 16.341777293472624 115 154 195
5.552630407844756 -1.7086820042965587 15.537548480090985 68 119 100
5.91086132982155 -1.6977239713264822 15.487348628361522 116 69 94
4.000989058318976 -1.6821294008482215 15.816168090279222 120 75 80
4.000989058318976 -1.6821294008482215 15.816168090279222 120 75 80
7.33204290264623 -1.568191998670288 15.208253411678834 39 42 59
7.4550571768108735 -1.4753151987463973 15.176493061079867 86 141 197
3.286596259531194 -1.4580779204121148 15.996032948850091 56 56 64
7.839207646476746 -1.3274251133310653 15.12138075316751 31 38 54
3.88722527903902 -1.2224162205755542 15.921574212529103 49 51 56
3.570807396291947 -1.1041215072557438 15.968460866972462 146 173 211
3.570807396291947 -1.1041215072557438 15.968460866972462 146 173 211
4.905538044540746 -1.0554647419863907 15.7361362371978 140 168 212
4.905538044540746 -1.0554647419863907 15.7361362371978 140 168 212
6.481555144706326 -0.912659958605685 15.44154358310674 178 216 252
6.481555144706326 -0.912659958605685 15.44154358310674 178 216 252
6.682117052793426 -0.9152257018276387 15.406140868185199 175 221 250
6.481288042125591 -0.7805837203361744 15.454903585128788 181 218 255
6.481288042125591 -0.7805837203361744 15.454903585128788 181 218 255
6.680414360164295 -0.771070143103636 15.420817958771881 167 210 252
4.285199347166046 -0.495128588661221 15.925635074884626 61 82 122
4.281937787535739 -0.49361468465140634 15.917720398503162 61 82 122
8.235417944264704 -6.186757228839985 14.548239751936505 54 67 86
6.835196963621555 -6.206543571657596 14.80934143153879 110 137 172
6.840829098175261 -6.212840965303596 14.822174628696564 110 137 172
2.5244749265536837 -5.057542418093042 15.78497600270178 160 189 221
7.516145565727156 -4.772772772436922 14.849670613573569 75 117 170
7.968356231454417 -4.269732582211258 14.77488333504766 59 61 73
1.6240776767126084 -4.305643751045268 16.025785883366147 173 199 222
1.6124445998143961 -2.969012854686432 16.158970297528295 176 201 231
1.6238930280039792 -2.4547920024033223 16.20423380928732 143 175 216
2.300418679285724 -1.8598164110538153 16.12181372285657 62 69 87
4.545493510929681 -1.8219036628165148 15.728829396462169 59 60 78
8.237661969100241 -1.3949774688839587 15.03117617107924 96 147 194
9.207613005254988 -1.3707629747153613 14.837931566836058 26 25 33
4.87267450386844 4.906515260042655 9.754574742497296 238 235 230
3.838881150121427 -4.480876945770551 14.263764753381691 176 206 234
1.585121852776292 -3.3533544190323163 16.127790559322015 174 200 223
6.310093207266838 -1.7493573167521834 15.430298777232718 123 168 223
1.1705715248129012 -1.7504485051629888 16.352801879861993 125 136 174
3.281964875209355 -1.6412813344291308 15.986305360426938 111 144 195
8.429181246223143 -1.4331555065066208 14.981415231136905 25 29 41
6.510549450085435 -0.4317757190643783 15.489369838389186 194 218 245
4.582624001105104 -0.2801210120746284 15.90915579430906 41 36 42
2.5925592684827468 -5.257927535651325 15.757810090454365 170 196 219
1.8265566458761222 -5.023305563483825 15.97028137396484 130 162 203
6.584778063388738 -0.8580034376298155 15.441899461433195 177 219 248
7.5467801391800045 -0.6233129632197835 15.281367759451406 25 29 41
0.7754194405052547 -0.6104783823187273 16.560778273355332 108 127 159
0.7754194405052547 -0.6104783823187273 16.560778273355332 108 127 159
1.2370357560625131 -0.5905988739968773 16.39355913951321 109 127 163
1.226910291950438 -0.5942571533239948 16.446916201789026 109 127 163
7.086498611383409 -0.42973410047576166 15.379217708631199 42 71 103
7.087631096066615 -0.42932441168285185 15.37874019775274 42 71 103
8.702371203924356 -0.1549006369996071 15.055418673151335 29 25 26
6.905389756611656 0.6924763408273622 14.916611759651758 174 146 108
7.987430263251275 -4.063893539761643 14.810574384190867 189 219 245
4.671210785171915 0.0043681806352484365 15.840998310583013 77 64 58
5.382806976336829 -6.249723209886761 15.122195687914012 218 224 236
5.384092685014151 -6.242566814340848 15.109447810764708 218 224 236
7.285268103949393 -4.86598560043296 14.867404848149011 165 203 242
7.31655808015304 -4.5080158164187845 14.906275584213105 47 69 112
5.738657642614685 -1.694226575405716 15.50189317553677 111 57 55
8.914581845925134 -1.331939859470499 13.897643700094935 186 199 218
8.937609898674715 -1.3327714823724177 14.873197382268316 4 9 30
4.030712732918331 -1.1488554208260569 15.901961305035739 222 235 248
8.362979541206649 -0.8381626718818296 15.050143360734745 225 237 251
8.424858686347408 -0.8361940665422406 15.036260388152478 227 242 251
8.425922749906249 -0.8359973697378915 15.043882556312157 227 242 251
4.2429538198544385 -1.1048292913339561 15.852931085655518 230 247 251
4.609886134757399 -1.0710567126865977 15.789896339664383 1 8 36
4.609886134757399 -1.0710567126865977 15.789896339664383 1 8 36
5.434652683243234 -1.0084421580298355 15.623745396110396 225 243 254
4.227011795937673 -1.0810539062577833 15.86162784019786 0 7 36
4.227011795937673 -1.0810539062577833 15.86162784019786 0 7 36
5.124532910245739 -1.0155177909654758 15.69710201452227 231 242 253
2.640719461916528 -0.6826600163466386 10.538129602696507 2 7 28
2.640719461916528 -0.6826600163466386 10.538129602696507 2 7 28
2.9602662958432067 -1.1073031914878513 16.105547154477623 231 250 255
4.846583339863848 -0.9914741872026899 15.763432238625148 239 241 252
2.5053403524100992 -1.127925783964582 16.174012156673 217 245 252
2.981690561942176 -1.1035602371961657 16.092100217388484 0 6 35
3.7282301931505377 -1.0561100239012369 15.961038109960247 232 240 251
2.2042681709363983 -1.136999428658899 16.240002471631698 0 8 34
2.2022921474688575 -1.1335427461085477 16.235578194742352 0 8 34
1.0076372363889243 -1.2101670136017395 16.436332916108164 222 236 245
1.0076372363889243 -1.2101670136017395 16.436332916108164 222 236 245
1.1366077344536605 -1.1938369186154487 16.438279138383525 225 238 251
3.1456092948796988 -1.0684962473408253 16.067521838157038 245 252 253
1.9228364326692564 -0.901687652108856 13.32643053030843 220 236 250
1.9228364326692564 -0.901687652108856 13.32643053030843 220 236 250
8.173327031560962 -0.46668753656680484 15.131704594709726 234 245 254
7.6264974178658695 -0.4345117664470697 15.249645386741053 25 41 64
7.465905682953985 -0.4473435629185122 15.30582759804006 49 61 101
7.052153329031572 -0.4452771557704044 15.375785494170024 216 241 255
4.677328657672893 0.10235543791560253 15.86247921777649 20 9 2
4.6768099566980545 0.1011633651208736 15.857574469528048 20 9 2
8.815281349358472 2.4391604389153834 12.501707572265987 30 23 13
3.855195785026134 2.680920401983953 12.949783720496255 216 208 205
2.0402625850980205 2.6255341820265388 13.28056706723017 219 211 208
4.859112573905484 4.394100529279956 10.57136795560696 183 176 168
7.55373327459983 -5.848972012523614 14.722623181476354 224 204 215
8.890786353968346 -5.455300942827457 14.488671136043317 56 65 82
1.544809167768775 -4.0601381549628215 16.06276977567256 193 223 251
1.2524956266074638 -2.969541503053593 16.226744152887797 48 74 97
1.4512222610057741 -2.0124161753521785 16.25746118287916 144 185 231
5.786143710153745 -1.7525208898387667 15.492313997612376 221 190 219
2.210966850821688 -1.9338158370358953 16.13607417165723 34 54 94
6.182936206082654 -1.6288457313303786 15.427605615464026 67 41 57
5.783787517545424 -1.6329397607919174 15.491723986159313 72 27 68
4.880812948974759 -1.662108851686304 15.688182931839295 62 38 52
4.045379048204588 -1.6806878779878214 15.840203041864312 76 47 63
8.299078977488758 -1.3962634853767524 15.010144896769296 192 224 245
7.411601955801605 -1.4245790017969946 15.193123566819905 120 139 165
0.5452278043638292 -1.612941394894888 16.50601540911058 49 52 64
14.582898578009802 -3.4939540694075912 48.43607672333775 0 6 36
5.601093366987395 -1.0394232290681096 15.604914340930863 0 17 37
5.601093366987395 -1.0394232290681096 15.604914340930863 0 17 37
4.533418733432663 -1.0953320757948006 15.804579374177516 227 252 255
4.636688631565959 -1.0895049362452895 15.791790398648244 218 244 252
5.231697693534636 -1.047526618598423 15.676305725326058 2 17 44
8.098035467371506 -0.785699416985152 15.114134402820971 28 37 54
7.186845389634924 -0.8230974134585833 15.305963683887384 9 32 58
2.261681187032165 -1.1262838802709494 16.232598571992014 4 20 48
2.261681187032165 -1.1262838802709494 16.232598571992014 4 20 48
1.3936590075828543 -1.153439000272674 16.382609775825443 26 43 70
7.464203046354871 -0.40590069897131187 15.280196548189782 194 201 247
7.404746881501857 -0.3696496487031392 15.30598045091112 39 46 72
7.243650929855799 -0.3047444156697275 15.352277483177 208 225 253
4.683458689367363 0.07363169407178792 15.836169853184055 33 19 6
4.683458689367363 0.07363169407178792 15.836169853184055 33 19 6
4.757669433908978 0.11252310194424309 15.826360213664712 96 89 76
7.456131440251843 0.6897601664843325 14.824706600016903 44 28 14
7.088282883414407 0.6845614050625678 14.899173941566525 38 24 4
5.395577770038152 1.6974721402577626 14.064007842954943 178 175 170
6.207509282504857 2.7598597036969466 12.534797317985587 172 169 164
7.473706361555348 2.884736603178704 12.126041672669057 176 173 168
4.70557128053113 4.140882561752422 10.93244959901801 68 56 40
4.831790783558018 4.179224055080062 10.853539623411404 197 190 182
4.920293735819024 4.340510576518433 10.623036043802786 101 89 73
8.859181041550507 -5.430317825876462 14.50151181319 187 196 213
9.261391105461637 -5.3552291890652315 14.418353601639302 122 121 129
1.3769317123971299 -5.328073181307168 15.971319512301227 146 164 181
1.3335908067163058 -5.305551154779114 15.995006840170108 184 205 232
2.407214699422843 -5.198455076854995 15.785899646286063 112 141 173
2.4093741082448403 -5.201152875278639 15.793142220136213 112 141 173
1.4847270990222605 -5.139329949807709 15.998979993422052 85 117 158
1.911775106480878 -5.091503721048772 15.895358695214478 115 148 183
2.4833978757547257 -4.99878616686574 15.770533749844718 112 141 173
1.80360972596158 -5.000540497297912 15.924823153364537 62 105 148
4.5259190488337016 -4.757035793433717 15.431741004184417 87 117 145
4.5259190488337016 -4.757035793433717 15.431741004184417 87 117 145
1.3390157262840663 -4.914909586344997 16.023704806511105 174 207 242
1.9043644200301157 -4.654657653034829 15.938776278012844 69 99 127
1.6360237705815477 -4.654642015407316 15.989904337864703 145 171 194
1.479540722439801 -4.098157592097118 16.093797384161178 113 141 178
1.305273750790545 -2.9838105879165724 16.219885276609862 191 219 252
1.4166029877548743 -2.168943078850998 16.272709738907842 81 122 168
6.069010891341032 -1.8684058404211474 15.42594268639803 156 196 242
8.058442508635 -1.374565045220963 15.070814747360481 28 37 49
8.292076407239536 -1.3476329378775338 15.01314801895351 180 210 240
8.293381961094717 -1.3487273858712094 15.020615118150875 180 210 240
1.5107008404640871 -1.7485472900812327 16.286807655598487 157 169 216
1.263852745332092 -1.7241998893035761 16.35076923595905 48 68 139
8.649214963247713 -0.7896229582494004 14.998428348149284 29 39 62
2.9575838363873865 -1.1528030231502924 16.09394912854194 204 217 236
2.957750622513932 -1.1517866465526407 16.09339976005412 204 217 236
7.541820339114872 -0.8313693836026324 15.230812945859759 131 136 174
8.203981831832518 -0.44254002416154514 15.119570871935155 32 38 60
8.203981831832518 -0.44254002416154514 15.119570871935155 32 38 60
7.935543106178878 -0.4472067617773121 15.18511443061687 23 40 60
7.935543106178878 -0.4472067617773121 15.18511443061687 23 40 60
4.798561636521875 -0.09411990458216582 15.815055609276216 100 91 87
4.560133288341029 0.07480759548253119 15.83951119420214 98 89 81
7.690740839264365 0.7853049108525392 14.728736131449145 172 151 120
7.168504216940159 0.7722674206924119 14.795198893424153 177 151 128
7.219887042941947 0.7740166109081461 14.783608812041884 181 156 133
2.0795640991508075 0.9069486820182188 15.55335421743652 63 60 55
7.312108010311326 1.7509009388424621 13.685255005902375 85 77 74
7.31106354268789 1.749135501144702 13.683339277449619 85 77 74
1.4033643452581401 1.5755337334686095 14.771640327718215 131 123 120
7.75931300730092 2.045091270653828 13.174243510713373 39 31 28
8.01851908541854 3.1605270669247374 11.674182291444618 35 32 27
4.790565938226859 4.173177393210964 10.868254978686544 57 50 42
4.904896394880218 4.948955039962369 9.715922889169825 164 155 138
2.1078190502824423 -6.332258973955677 15.740456282031454 186 192 216
8.437989366892962 -5.861309737896102 14.5408144023419 161 192 236
7.649093219570386 -4.876374151231703 14.799911461442278 176 210 246
1.2055430098445712 -4.993152402143804 16.027554193267925 169 202 237
2.581006568309584 -4.83855065990603 15.777112619947234 182 211 243
7.458892548071415 -4.464973254477024 14.88866821469619 59 65 89
1.2691972518722272 -3.9887638234963356 16.12684632055622 61 96 125
1.4309149437315987 -3.877634236005405 16.119863995985746 148 178 206
6.122435151900772 -1.8239106383962347 15.412521345480599 66 72 103
5.7565785223941015 -1.7128662068594056 15.507120002868005 101 62 91
5.813769102736227 -1.711279982955701 15.484094003783929 116 77 106
8.293486584525407 -1.4444801972159786 15.005841912360175 174 195 237
8.292911939536676 -1.4436491035658525 15.001637047964907 174 195 237
8.664627754318307 -1.4159664131207137 14.938727859954852 147 182 220
8.564946187800153 -1.4173250737066305 14.94397634856114 171 196 226
8.564946187800153 -1.4173250737066305 14.94397634856114 171 196 226
9.88024545470295 -1.3267613788400476 15.005639264293759 176 190 210
8.227596640017644 -1.3483792158283165 15.030956523991826 175 209 241
4.749846902120051 -1.0891929903169624 15.768768124336452 138 163 181
8.948117571364707 -0.7750597493073144 14.938932273375714 149 163 192
3.839462230422682 -1.0916069569682039 15.933087553324205 42 42 70
3.239703093732567 -1.1049785404769201 16.053251422759242 42 50 71
1.9021764689233476 -1.1312369961616064 16.28486976593567 47 61 86
0.977396911415119 -1.1798022153336678 16.454988523580763 64 77 96
1.50628158364377 -1.1411974069902322 16.356547290412006 55 71 94
0.23215210645179885 -1.1902302306573134 16.613209460445017 70 68 80
-0.12882628765502102 -1.196720220506621 16.683431934754456 54 58 77
6.924549579320883 -0.42993534436144243 15.400614614753659 204 224 248
-0.2697192656184355 -0.5510056840935458 16.77607545327843 69 63 75
0.2399586432931533 -0.5233347520989197 16.66507233690488 111 115 125
4.540351373065129 0.010696727583004856 15.862201970173016 100 88 76
6.031023729160015 1.7180783292325965 13.928317758467426 155 148 138
3.6648461022015124 1.63738562411404 14.348755758623522 164 156 153
5.2584420200746695 1.921074556301189 13.695475902612507 23 20 15
7.705870308461437 2.516768022848806 12.5762515484121 101 98 93
7.705870308461437 2.516768022848806 12.5762515484121 101 98 93
6.0186824673699935 3.038460704372647 12.198264713357847 96 93 88
6.0186824673699935 3.038460704372647 12.198264713357847 96 93 88
5.869556749140807 3.0286154665353218 12.210538261235033 109 101 98
5.869556749140807 3.0286154665353218 12.210538261235033 109 101 98
9.563403215208762 -6.435067780016655 14.282453660032356 129 148 172
9.561371050725366 -6.429293332547327 14.272862621889551 129 148 172
9.358881152417622 -6.433811900025554 14.318384678745598 141 146 181
7.849035549199755 -5.189741907475279 14.6869628143585 186 209 236
1.8546157308653357 -5.050249322780265 15.92977973706495 166 205 244
1.762546233500379 -5.044232159837553 15.928120906825756 161 200 239
1.7455077189807597 -4.983388628478805 15.934872627785692 163 201 240
1.8556537544382352 -4.95642134642774 15.9269504115129 159 196 240
1.8557974206827323 -4.956682608691521 15.926324008167205 159 196 240
2.761975680899347 -4.792916856648147 15.76561468867814 144 170 198
1.3940126387884786 -4.367503224474544 16.04674669362862 203 222 244
1.3906479222869874 -4.363486006442423 16.034816724352137 203 222 244
1.3209023508957505 -4.257886908409692 16.058362019217217 176 211 243
1.3868495819744133 -3.8127864544952015 16.111412540940947 197 221 252
1.4139724251739128 -3.5921968589731557 16.1470602339613 205 236 254
1.7060507587755076 -3.4799198076435585 16.090115909272164 178 212 240
1.385849437771129 -3.482314936706426 16.17046991741542 198 228 254
1.7074534316688872 -3.3703931679999357 16.104200855805903 199 229 255
1.3887073592324077 -3.3703614907637736 16.16919940754588 201 232 250
1.3898480157649362 -3.3711213365541175 16.174385803180932 201 232 250
1.3899525725415478 -3.258345402505409 16.17546367787631 194 219 249
1.3899525725415478 -3.258345402505409 16.17546367787631 194 219 249
1.4016979617583074 -3.0308673883631934 16.18591886282781 195 221 244
1.3176965570665606 -2.114879836659463 16.321089447250323 137 180 231
1.2606156944759712 -1.9451131739167096 16.329565712182212 58 115 173
1.3122089472950813 -1.8798745503978171 16.32407371634706 139 176 223
7.9436942224608735 -1.3092270192031408 15.083367193371814 65 78 91
7.122318071603944 -0.8309633208011346 15.299331072182525 64 88 114
7.376903283772566 -0.8139143060832442 15.262924563575993 103 120 140
7.377905832778945 -0.8152452916274411 15.272650509313294 103 120 140
4.588121293731618 -0.48079009770370773 15.857101291169107 164 187 211
0.3966248629105391 -0.6771089123296814 16.632161488498813 73 94 113
4.569214391980152 -0.09051555875922615 15.846733615738762 94 84 76
7.345565332911756 0.6123327216537298 14.947960695290671 134 112 91
2.5669053451702344 1.6049731456852299 14.565350123832312 141 133 130
2.5669053451702344 1.6049731456852299 14.565350123832312 141 133 130
1.1434068496798087 1.765866819823835 14.536946639582789 184 176 173
0.5350447782346108 1.747871660876784 14.639059213891786 36 28 25
8.720084520689593 2.5024124956189797 12.403444979261067 36 33 28
7.654170355346431 2.485296063465549 12.710215375570344 28 20 17
7.39194065641852 3.213282166044078 11.694940208795039 31 28 23
7.435766081913922 3.221878277280304 11.68224796039173 30 27 22
4.711463672290684 4.154255583594464 10.881682205129694 40 29 15
4.878324236691375 4.465263769433926 10.479472582684076 202 190 178
4.61583478140096 4.489159824994353 10.484684494045688 56 49 39
9.820594887046342 -6.13157635082364 14.257745612270847 126 135 170
7.6201065065609015 -5.920652918654267 14.70107927237357 142 97 93
1.136019977217404 -4.900328050549373 16.070091379045014 171 204 239
1.5561033446670225 -4.6969963273823385 15.930252549716018 189 222 245
1.6731036617585573 -4.730499245752581 16.013472883534554 177 212 231
1.3272680368289582 -3.588713821744023 16.13708410649911 190 216 239
1.3218154336027406 -3.2625737003052215 16.189662741576992 203 224 247
1.3108698531539271 -3.0340591140980155 16.211301056390923 197 222 244
1.2654430812142052 -2.396869339187132 16.309825997560207 154 196 236
9.79467855726275 -1.4953531881170345 14.71448940804441 42 37 43
9.787487306291295 -1.3621263422855119 14.70790378440529 38 32 37
9.787487306291295 -1.3621263422855119 14.70790378440529 38 32 37
1.6384683822919692 -1.8394976140023869 16.2670433029245 130 166 214
2.8482616640657312 -1.4086964570041869 16.118789585768777 75 98 130
8.522751436035382 -0.7972894542982244 15.032660417311305 198 218 240
8.261575246266238 -0.7998511207059539 15.054049385265762 194 212 233
7.758201630594609 -0.8199884803063607 15.199037263206996 94 123 148
1.8371669694021258 -1.1426848279086328 16.294605862019385 222 236 242
1.8374626985996605 -1.1422445823767542 16.295874456023505 222 236 242
1.0806139617921395 -1.1552485706175624 16.440714458803484 136 156 181
8.506730096673905 -0.43192557172280077 15.066233597614236 225 236 248
-0.0070419680024587095 -0.7001112010448505 16.720210427601103 103 108 130
0.2528747883458189 -0.6772325207867546 16.673656726899786 203 218 237
0.2528747883458189 -0.6772325207867546 16.673656726899786 203 218 237
-0.08835345658015115 -0.6128446773271484 16.744780537969177 51 55 58
4.073440101624827 1.7484546598811264 14.21242197642099 22 19 14
2.951747946597732 1.8184859239949276 14.225065215894498 158 150 147
1.2147576706325922 1.809884082248026 14.480453265392487 47 39 36
4.985195138681946 4.171892756926712 10.83812705193207 64 52 36
4.790240775645225 4.533949374558258 10.41862068917136 63 56 48
7.75873115421117 -6.181345082960465 14.624949660842566 230 189 179
7.764347988044205 -6.185039342382732 14.633325874342725 230 189 179
2.951624080753648 -5.551393435855259 15.565757995338812 124 130 154
7.07096173822442 -4.800247846773019 14.92978163555839 77 101 145
7.5043266997163585 -4.63679369535473 14.803529235232578 111 135 179
1.7116656964442782 -4.869857325631505 15.962415447571304 166 204 243
1.3230504637782552 -2.6935180752211463 16.292944529663686 174 213 246
1.6481592389035327 -2.0452941856476503 16.24127875541092 143 184 230
9.053082533965195 -1.3430695120851834 14.86786713393193 184 214 248
6.682117052793426 -0.9152257018276387 15.406140868185199 184 218 246
8.401944385277375 -0.8006099129585296 15.051149859469536 141 161 179
8.401944385277375 -0.8006099129585296 15.051149859469536 141 161 179
1.5834024533466315 -1.1401801671883165 16.32981129999706 8 29 59
1.5836428436047207 -1.1402885412664872 16.325428622601823 8 29 59
0.3899159904915268 -1.1803513575016846 16.567473416922045 195 210 226
0.3899159904915268 -1.1803513575016846 16.567473416922045 195 210 226
0.13192073722591546 -1.1835848913425693 16.635632682178652 216 233 255
0.13192073722591546 -1.1835848913425693 16.635632682178652 216 233 255
2.257420892797489 -1.043244813540395 16.211459373576936 39 37 51
8.640332467676817 -0.3784009990999162 15.74591260743554 34 37 49
7.625773157037727 -0.3357788385911148 15.261150571961158 167 190 222
5.174078147806132 -0.4673114005558885 15.745884364149093 37 36 65
7.176235731666823 -0.3504332534983505 15.344582158393424 144 172 210
0.13766231237998539 -0.6950265475712111 16.69224730853216 229 236 248
7.994830673268521 0.7671424352826356 14.668279556817291 179 153 115
9.003752942616405 1.8807829506860192 13.316346214998081 25 22 17
1.7594203753104227 1.6906812663560897 14.578322913180553 36 28 25
7.537683809278943 2.787540101141361 12.249300428331713 6 0 0
7.537683809278943 2.787540101141361 12.249300428331713 6 0 0
7.575540768981142 3.7128155527548534 11.056710065657033 21 17 18
4.601777309399852 4.581271019186173 10.238840485144173 239 231 228
8.860532430899315 -5.4278821363476535 14.49995952068513 197 206 223
1.6742558421147888 -5.063845608468608 15.941612142321828 137 177 228
1.451013912510205 -5.023522940124192 15.99150901059006 112 140 177
7.331467941332475 -1.5642716777929602 15.189625264933538 43 46 63
4.679351505103929 -1.7270101068852872 15.720237893561206 88 119 97
7.451757969137196 -1.4743476990701239 15.17442263735751 97 147 200
8.05624772851817 -1.3373695344837304 15.05681765880649 34 39 46
7.6078173335673585 -1.3470752107413935 15.160261391804084 44 41 52
-0.2370548624814932 -1.1896448494289644 16.68624052203732 44 57 81
-0.2370548624814932 -1.1896448494289644 16.68624052203732 44 57 81
6.679533158867739 -0.7715825375608488 15.41456860013325 187 216 248
5.267222664478306 3.049204375253566 12.275245756616236 32 29 24
5.267222664478306 3.049204375253566 12.275245756616236 32 29 24
4.922932218073072 4.439591120698025 10.512720658929977 198 186 174
4.582618799120571 4.519583824791357 10.445120960872705 125 108 92
4.4906373483697175 -6.285312500355499 15.274213468866245 70 83 100
7.293695178161927 -6.00935322538258 14.694796541714918 58 57 62
7.293695178161927 -6.00935322538258 14.694796541714918 58 57 62
1.4224220992524863 -5.318086534104808 15.963007315468369 199 221 240
8.058203738635978 -4.911431976841196 14.716539377581805 160 198 237
1.5515575363083904 -2.139279995375097 16.13710284680776 145 186 232
8.029167892668656 -1.6085788909849992 15.035870209790664 152 198 248
9.39742340836688 -1.3676576992059188 14.791256069652187 26 42 63
8.203190951759442 -5.024367923818188 14.663091627092665 55 64 81
0.9990381234986034 -1.9560724199464716 16.388208351190613 68 62 72
9.789240544654003 -1.3498687958618296 14.69061522897635 50 41 44
7.9257614148588456 0.7295299513472647 14.669509018204339 180 154 128
7.928527224411966 0.7343870580139303 14.69224460601379 180 154 128
7.74080600737981 2.0565439133770664 13.206387633417737 36 28 25
7.74080600737981 2.0565439133770664 13.206387633417737 36 28 25
2.276630051026828 3.1982741254179903 12.760911602791687 23 20 15
4.961457689160877 4.268542211920817 10.751421387585994 201 189 177
4.9915933758979305 4.753334459338382 9.955015702937718 174 158 125
1.6129076150235682 -5.291643381810854 15.96557741248254 191 209 229
1.380038456473541 -5.096940931775872 16.00793776232771 111 139 176
1.380038456473541 -5.096940931775872 16.00793776232771 111 139 176
1.3774065232792287 -4.3526496562466255 16.038980898055843 193 214 243
6.905389756611656 0.6924763408273622 14.916611759651758 190 165 138
3.830885567409368 1.7281495848432367 14.270797725574134 27 23 24
3.050034301156235 -1.3679411113899267 16.069866403378 56 54 68
1.216988283913226 -1.3907445408229973 16.388381340910136 59 57 66
4.791217508352885 4.357618866683703 10.631770580008585 63 56 48
1.0555089136555114 -0.3878627304350051 6.606731859117398 219 234 250
5.5901033689784505 -6.9984682747699996 16.77215271150399 63 70 88
4.07167166787749 -6.223867471939913 15.368661396324978 0 0 0
1.4873392003124561 -3.418005847218063 16.139207519947156 101 127 150
1.5605813063511105 -3.0531222345792877 16.154801863501504 155 181 204
5.716484060926006 -1.6677664714353129 15.520281896572607 161 115 118
6.118152560145242 -1.5968504827537164 15.447202876972447 26 68 52
2.6063805565380624 -1.1222730293320025 16.135296367473458 5 25 49
0.08783178982111761 -2.184860512303129 28.5262991377525 199 215 230
4.4227459131095035 -1.1155591950544577 15.811443771269916 15 23 43
4.883730700194393 -1.1033455486114363 15.730372894067079 18 27 44
4.661388986781597 -1.0697902817340288 15.783382284222418 10 18 45
5.1163224055535395 -1.527775880853643 20.766323529660575 35 45 57
-1.1646938456042406 -3.915584448900769 50.44465701585781 204 233 254
4.849489441411574 -0.9931894575423547 15.754742106406178 212 215 228
5.800331442932548 -1.0422409653648486 15.552186771131039 9 31 43
4.639698992734193 0.028914874105489347 15.834044113980857 39 32 24
4.639698992734193 0.028914874105489347 15.834044113980857 39 32 24
8.14263981580557 2.8000186593782845 12.096713868205846 161 158 149
8.775653361453244 3.0985552999844304 13.456501977861992 160 157 152
1.5371873107731089 -5.223100227615614 15.963859270410088 127 153 176
1.5645414085604434 -5.582044900125179 16.961553331068732 115 141 168
2.13894548455626 -5.000128219051722 15.861487157256187 150 180 208
1.4097344258426872 -4.951927825190287 16.003859761957173 150 181 202
2.4184919516744454 -4.802608232752127 15.820070604294765 91 121 149
1.9664181543092734 -4.511853999483053 15.939734031199011 153 184 205
1.429541121592318 -3.877085112815525 16.114549507014996 113 139 162
1.4878522743288247 -3.533440602973097 16.13302168477783 90 116 139
1.4878522743288247 -3.533440602973097 16.13302168477783 90 116 139
1.7162988083222805 -2.897984402593718 16.14518271147139 140 171 192
1.6964056338622897 -2.3530592970448887 16.231601025676554 114 147 182
1.5422674280658277 -2.014897248939242 16.27346691622307 103 132 164
6.735690141548726 -1.8821461915056807 15.274548098384798 54 105 148
5.3408521387317345 -1.650093782026922 15.577211462894903 71 49 69
3.4652539345103817 -1.4326746604720202 15.968846794583646 80 89 94
3.758528687327393 -1.0869642583686678 15.9438124199116 13 29 44
3.758528687327393 -1.0869642583686678 15.9438124199116 13 29 44
4.461312645954696 -1.0672221045324282 15.821720845898755 6 22 47
8.884565002509337 -0.4486647009834944 14.986228371748712 223 235 248
7.4334512944452635 -0.3439330792957994 15.30590488275848 189 206 234
4.693788039544669 0.13768126777951512 15.851248543825557 114 106 97
3.4971323817910456 3.0424017877191276 12.50599086928492 167 164 155
2.678635325630529 -5.297220590251012 15.731833693747626 122 153 179
1.385058803184905 -5.245682505166644 16.00456171262166 155 181 204
1.8227774951021494 -5.03775279248737 15.908638691072975 145 175 203
7.365497319808013 -4.676616805922983 14.863329105312001 61 93 132
1.3352105907261558 -4.421187395394131 16.061410459380486 118 144 167
1.278061530038837 -4.211678693395483 16.100505578378257 102 128 151
